18.3843929613	0.286796642395	1.97093623131
21.3605713259	0.159833461938	2.00734669967
20.3845666966	-0.0357794254243	2.0124777066
18.5193268381	-0.14176831436	2.15671812001
16.4425523079	-0.358804971233	2.13752449341
19.9239602582	-0.454573676142	2.1642840476
21.4845260326	-0.314862497661	2.0469946955
23.5047051749	-0.207319624541	2.15744577147
24.3871756647	-0.0219860730898	2.15500985804
22.0797800645	0.103071943703	2.2378733551
24.8911789503	0.238857921777	2.21725766787
28.6649405449	0.230432786875	2.23237072937
30.761258705	0.192170793474	2.13013009924
33.8234821551	0.269373874453	2.10858203389
36.7506634378	0.282260211758	2.04152030585
36.170786634	0.356853082159	1.96408283794
39.8800303171	0.380762814726	1.96624263122
40.5532869103	0.405597922794	2.05672494587
37.3418731895	0.40217139366	2.10929171119
38.6057673503	0.308702160235	2.16241335069
35.9418230822	0.252501799534	2.2206944899
35.6304984935	0.134189255461	2.17505648329
32.7374014989	0.0702025323718	2.22603893394
30.7523726631	0.0929368487348	2.32612394647
26.9687991887	0.0738808365857	2.32723189058
25.8890912555	-0.116286205742	2.32983960499
29.3599638607	-0.163775092833	2.28560171216
28.8967618049	-0.186355135385	2.15661902783
27.0066898378	-0.262866718822	2.05767420146
25.8576103725	-0.198365150302	1.93346787025
28.3196367917	-0.239687552866	1.83303176924
28.7866596408	-0.214305113443	1.70222776709
32.5042454062	-0.244197837963	1.70588426332
34.9878162511	-0.180931053382	1.64785905822
37.5483848294	-0.132443359748	1.70902064733
40.1778322499	-0.0657226251278	1.68595456427
40.6811404668	0.00591149520399	1.74643718472
43.7376862386	0.0603320272822	1.73713089803
43.0474189665	0.147499839795	1.72969874253
42.6713241465	0.193956992718	1.80567271625
46.1261335531	0.20888170519	1.8383070001
48.2843184064	0.217090260794	1.90433165164
49.0886106055	0.146966171562	1.94316572845
52.5586735128	0.132902332586	1.91471327532
46.3824558915	0.0995940472496	1.63665736629
42.7651307957	0.0836204403977	1.65642830375
39.3548635207	0.0556094436843	1.62809095374
37.6800695943	-0.0312467418603	1.61145471364
34.3686347211	-0.0211612362221	1.6618652145
31.3655038102	-0.0918874042229	1.65345209476
