19.0909177244	0.038881227962	1.58285255466
15.3006762382	0.232717292827	1.48954445486
14.9836241975	0.426787449869	1.50502107773
19.5822557682	0.463277380167	1.72130367816
21.6453870879	0.534182763338	1.57981263692
21.4155862325	0.690444726634	1.71880625355
16.8087401931	0.65161571782	1.59055869426
15.0984410853	0.635742472645	1.80175241104
12.947693499	0.438932686407	1.76495632625
16.3988106655	0.299119640345	1.89862094253
13.3321115518	0.0625004681381	1.90357112015
11.6926610903	-0.18571000781	2.13880900366
8.13749076114	-0.267749761528	2.08074296791
8.81789540448	-0.659786135525	2.10058850321
8.6523551048	-1.27767600672	1.92120056063
10.3284135526	-1.09778499684	1.5615168284
12.9278975826	-1.50542376026	1.66089094042
13.728520543	-1.4432302051	1.86775579509
12.7305901061	-1.15503610427	2.05855540888
10.4472374795	-1.13768694266	2.35144709751
10.4337596852	-0.903618922502	2.56769118806
7.36498917079	-0.527032516086	2.59768202594
9.2703170262	0.265895476531	2.58542942042
13.4677366473	0.350501101053	2.41096336949
14.4766174426	0.348573321456	2.25296253561
15.903109928	0.578442940721	2.12151979236
14.0875212395	0.796933610929	2.20639232837
11.1431319818	0.842969092375	1.95117739991
12.6375049623	0.937697269646	1.63986476228
12.825405945	0.875803933837	1.52658518632
13.4387536391	1.11501647256	1.18259919973
14.0428687357	1.01284580624	0.939071563154
13.3853621811	1.27228957116	0.984949065311
13.748057613	-1.46505606669	0.573181532814
11.5844126404	-1.06893517215	0.585347530779
12.4598716529	-0.57172846436	0.494062525194
9.70234423209	-0.0243889069114	0.474184206293
12.0079651388	0.489781494886	0.722625048113
12.5262026109	0.980735846145	0.698477740982
10.2873422505	1.04802083264	0.959068824826
13.3283257528	0.97210088568	1.16822519002
14.8576933245	0.897971776442	1.46852685356
14.7922564322	0.723447658844	1.52766301922
17.3155672461	0.580176049083	1.51660807875
17.0688940509	0.493643789237	0.623135406299
14.5628210295	0.703997784536	0.512355485233
13.5067100745	0.380706086634	0.209337973276
13.7249424223	-0.969099632344	0.218087156702
11.0550450821	1.36659824067	0.305896362858
12.0097053311	1.14507974653	0.58557205441
